296067.612,701595.312,8.440
296069.620,701588.611,8.420
296071.166,701583.327,8.400
296073.660,701575.522,8.430
296076.317,701567.593,8.450
296078.123,701561.029,8.510
296079.830,701554.323,8.550
296081.032,701548.301,8.590
296083.291,701539.419,8.630
296085.475,701533.424,8.620
296087.689,701527.643,8.600
296089.606,701522.282,8.570
296091.372,701516.760,8.550
296092.734,701510.782,8.540
296093.838,701505.163,8.630
296095.022,701499.235,8.680
296096.075,701493.826,8.720
296097.535,701487.958,8.790
296099.874,701481.058,8.780
296101.987,701475.581,8.840
296104.449,701469.777,8.919
296106.260,701464.095,8.999
296107.757,701458.572,9.089
296109.238,701453.124,9.178
296110.538,701446.569,9.268
296111.614,701440.406,9.418
296113.202,701433.169,9.497
296114.706,701427.340,9.757
296116.443,701421.485,9.936
296118.567,701415.974,10.036
296122.039,701406.033,10.176
296123.968,701399.608,10.285
296125.329,701394.170,10.325
296126.404,701388.326,10.374
296127.757,701382.266,10.394
296130.032,701371.543,10.313
296131.414,701365.796,10.403
296122.506,701361.834,10.341
296120.648,701367.165,10.280
296118.582,701372.433,10.220
296116.209,701377.914,10.170
296113.978,701386.002,10.199
296112.432,701391.578,10.189
296111.459,701397.115,10.218
296110.325,701403.166,10.148
296107.763,701410.284,10.067
296106.595,701415.744,9.967
296105.721,701421.544,9.907
296104.216,701427.198,9.776
296103.094,701432.683,9.596
296101.810,701439.464,9.546
296100.038,701445.268,9.515
296098.038,701450.696,9.385
296095.967,701456.339,9.195
296094.558,701461.776,9.074
296093.236,701467.618,8.944
296092.386,701473.428,8.893
296090.926,701479.575,8.803
296089.265,701488.038,8.753
296087.667,701493.526,8.682
296086.230,701499.817,8.602
296084.279,701506.381,8.531
296082.452,701511.961,8.581
296079.286,701520.402,8.561
296077.193,701525.916,8.660
296075.821,701531.258,8.610
296074.244,701537.267,8.589
296072.969,701543.042,8.509
296071.687,701548.405,8.329
296070.315,701554.717,8.448
296068.778,701560.220,8.418
296066.453,701567.063,8.358
296064.602,701572.368,8.357
296062.476,701578.178,8.367
296060.216,701584.868,8.397
296058.861,701590.741,8.396
296057.791,701597.353,8.366
296056.491,701603.384,8.375
296054.680,701608.774,8.325
296052.366,701614.262,8.175
296050.013,701621.935,8.324
296048.019,701630.616,8.344
296045.780,701638.298,8.373
296044.295,701643.782,8.363
296042.757,701652.378,8.382
296041.453,701658.270,8.372
296040.272,701664.319,8.432
296038.899,701671.486,8.411
296036.631,701678.413,8.461
296034.395,701683.846,8.430
296032.463,701689.790,8.420
296030.615,701695.582,8.380
296028.957,701700.905,8.359
296027.089,701707.372,8.359
296025.129,701714.219,8.229
296023.464,701721.829,8.358
296022.085,701728.579,8.378
296020.750,701734.074,8.317
296019.392,701739.857,8.387
296017.865,701746.840,8.397
296016.340,701753.412,8.416
296012.937,701762.819,8.426
296011.076,701770.575,8.485
296008.971,701779.098,8.495
296006.393,701788.287,8.484
296004.677,701794.179,8.534
296003.212,701800.023,8.523
296000.520,701809.328,8.483
295997.887,701817.039,8.532
295995.054,701824.284,8.512
295992.676,701831.463,8.371
295990.751,701838.981,8.401
295988.631,701847.867,8.460
295986.558,701855.081,8.230
295984.157,701864.223,8.290
295982.664,701870.558,8.600
295979.652,701880.381,8.590
295977.919,701887.333,8.570
295976.514,701892.770,8.550
295974.757,701899.506,8.510
295973.436,701905.108,8.490
295972.202,701910.948,8.440
295971.039,701916.335,8.380
295968.731,701923.461,8.350
295967.023,701930.200,8.300
295965.510,701936.857,8.300
295963.841,701942.673,8.310
295961.083,701951.808,8.350
295959.382,701957.763,8.320
295957.910,701963.877,8.390
295956.579,701969.688,8.380
295955.354,701975.548,8.460
295954.040,701981.703,8.430
295952.219,701988.393,8.410
295949.797,701995.525,8.590
295948.170,702001.545,8.540
295946.440,702007.199,8.560
295944.204,702014.628,8.510
295942.008,702020.898,8.440
295938.790,702031.857,8.529
295936.472,702039.474,8.609
295935.019,702045.002,8.579
295933.563,702051.107,8.478
295931.243,702060.448,8.558
295929.801,702065.916,8.497
295927.963,702072.747,8.297
295926.174,702079.140,8.436
295924.245,702087.464,8.406
295922.059,702096.264,8.415
295919.778,702104.955,8.385
295916.503,702114.818,8.354
295913.854,702123.815,8.324
295912.319,702129.503,8.373
295910.857,702135.072,8.493
295909.284,702140.596,8.363
295907.427,702147.273,8.462
295904.815,702156.501,8.442
295903.367,702162.443,8.422
295901.685,702168.996,8.391
295900.288,702174.811,8.351
295897.657,702185.789,8.390
295895.540,702191.797,8.380
295893.335,702198.598,8.379
295891.560,702204.372,8.339
295889.917,702210.208,8.329
295888.336,702218.890,8.288
295887.135,702224.383,8.348
295884.778,702232.855,8.407
295882.972,702238.538,8.367
295880.925,702243.867,8.317
295878.703,702249.195,8.346
295874.786,702258.304,8.366
295871.309,702267.626,8.465
295869.556,702273.145,8.375
295867.191,702280.902,8.295
295865.662,702287.903,8.364
295864.954,702294.047,8.414
295862.775,702303.546,8.413
295860.904,702309.293,8.363
295859.945,702316.826,8.352
295859.664,702322.329,8.312
295858.252,702328.478,8.292
295856.783,702334.271,8.251
295855.479,702340.640,8.261
295853.957,702347.943,8.231
295852.293,702353.895,8.390
295849.349,702362.253,8.360
295847.093,702370.872,8.499
295844.866,702380.011,8.559
295842.972,702385.717,8.598
295841.451,702391.278,8.688
295840.033,702397.797,8.468
295838.013,702405.805,8.647
295836.348,702411.279,8.577
295833.368,702419.281,8.596
295830.207,702428.749,8.616
295827.968,702435.879,8.495
295825.736,702443.992,8.415
295823.734,702449.660,8.265
295821.523,702457.494,8.304
295819.075,702466.789,8.314
295817.373,702472.292,8.303
295814.537,702479.155,8.343
295811.715,702488.013,8.452
295809.868,702495.197,8.442
295808.902,702501.240,8.412
295807.832,702507.031,8.351
295806.283,702513.151,8.381
295804.283,702520.145,8.440
295802.531,702526.030,8.310
295800.110,702535.607,8.310
295798.024,702543.192,8.270
295796.192,702549.989,8.310
295795.094,702555.783,8.380
295793.951,702561.610,8.340
295791.547,702572.177,8.360
295788.758,702583.274,8.390
295786.796,702590.548,8.360
295784.249,702600.951,8.280
295781.814,702611.194,8.300
295779.799,702617.972,8.350
295777.835,702624.738,8.280
295776.182,702631.763,8.310
295773.768,702640.265,8.330
295771.224,702648.693,8.330
295769.515,702653.950,8.280
295767.646,702659.565,8.260
295765.560,702666.472,8.310
295763.867,702674.336,8.300
295762.554,702680.402,8.340
295760.719,702687.756,8.340
295759.062,702693.730,8.310
295757.561,702699.662,8.310
295756.307,702705.598,8.300
295754.795,702711.204,8.329
295752.670,702718.224,8.299
295750.927,702724.239,8.318
295749.257,702730.317,8.358
295747.334,702736.310,8.347
295745.082,702742.051,8.397
295742.776,702749.346,8.406
295741.051,702755.411,8.376
295739.411,702761.093,8.396
295737.982,702766.946,8.385
295736.553,702774.207,8.395
295735.028,702780.752,8.404
295733.346,702786.465,8.244
295731.587,702792.069,8.363
295728.815,702801.398,8.483
295727.131,702806.987,8.482
295725.634,702814.030,8.512
295724.062,702821.575,8.501
295722.036,702827.874,8.491
295719.993,702833.413,8.540
295718.048,702838.674,8.540
295716.263,702844.777,8.530
295714.803,702852.249,8.509
295713.443,702857.941,8.539
295711.912,702863.618,8.549
295710.443,702869.831,8.489
295708.028,702878.680,8.528
295706.035,702884.049,8.628
295703.922,702890.450,8.667
295702.069,702896.022,8.717
295700.732,702901.722,8.707
295698.803,702911.167,8.706
295696.842,702920.041,8.726
295694.921,702927.287,8.726
295693.291,702932.802,8.755
295691.712,702938.645,8.745
295690.229,702945.668,8.745
295688.667,702951.568,8.724
295687.026,702957.032,8.744
295684.857,702965.248,8.754
295681.993,702975.728,8.793
295680.225,702981.088,8.783
295678.513,702986.870,8.773
295675.750,702995.979,8.802
295673.955,703004.067,8.792
295671.381,703012.518,8.811
295665.685,702989.146,8.935
295667.214,702982.845,8.925
295668.286,702976.520,8.914
295669.510,702971.026,8.854
295670.827,702964.376,8.814
295671.949,702958.412,8.734
295674.739,702948.192,8.743
295676.460,702942.696,8.763
295679.502,702934.291,8.773
295682.254,702927.793,8.742
295684.157,702921.759,8.702
295685.713,702916.447,8.662
295687.862,702906.888,8.682
295690.289,702896.814,8.701
295692.462,702889.943,8.661
295696.316,702880.144,8.601
295699.082,702870.976,8.600
295700.422,702865.354,8.580
295701.473,702859.419,8.550
295702.571,702853.920,8.529
295703.861,702847.909,8.529
295705.042,702839.951,8.529
295706.199,702831.697,8.528
295707.767,702823.454,8.538
295709.620,702818.026,8.507
295712.457,702811.470,8.447
295714.992,702805.186,8.496
295716.965,702799.393,8.456
295719.669,702788.369,8.415
295720.841,702782.738,8.375
295722.607,702772.551,8.364
295724.034,702766.454,8.464
295725.826,702760.366,8.434
295730.055,702750.013,8.423
295732.481,702745.028,8.403
295735.396,702738.851,8.412
295737.308,702733.458,8.412
295739.064,702726.330,8.411
295740.344,702720.732,8.361
295742.006,702710.141,8.360
295742.899,702704.708,8.390
295744.707,702697.791,8.370
295746.494,702692.272,8.349
295749.348,702682.577,8.359
295751.277,702675.786,8.348
295752.586,702670.443,8.358
295754.022,702664.234,8.347
295755.489,702658.552,8.327
295758.727,702648.704,8.366
295761.225,702641.503,8.386
295763.464,702634.773,8.446
295765.534,702629.279,8.395
295767.352,702623.832,8.485
295768.727,702618.433,8.374
295770.211,702612.435,8.614
295771.488,702606.970,8.474
295772.830,702601.495,8.623
295776.144,702591.751,8.473
295778.940,702581.721,8.462
295780.331,702574.360,8.522
295781.590,702568.966,8.461
295783.404,702561.315,8.481
295785.500,702554.031,8.620
295786.890,702548.592,8.650
295788.377,702543.172,8.550
295790.327,702537.339,8.489
295791.783,702531.891,8.489
295793.505,702525.816,8.459
295795.941,702516.947,8.318
295797.283,702511.368,8.458
295799.513,702501.657,8.547
295801.572,702492.321,8.357
295803.339,702486.654,8.276
295806.154,702476.299,8.256
295808.887,702468.402,8.215
295810.510,702461.512,8.255
295811.863,702455.910,8.314
295813.238,702450.436,8.344
295814.804,702444.266,8.264
295816.483,702438.846,8.313
295818.376,702432.769,8.333
295819.754,702426.820,8.392
295821.800,702420.168,8.372
295823.480,702414.908,8.262
295826.810,702404.429,8.181
295830.054,702394.328,8.280
295831.634,702388.255,8.420
295833.232,702382.202,8.500
295834.934,702376.443,8.609
295836.416,702370.976,8.589
295838.805,702362.351,8.618
295840.888,702353.888,8.608
295842.360,702348.537,8.588
295844.659,702340.863,8.617
295846.283,702333.594,8.617
295847.288,702328.063,8.686
295849.890,702318.327,8.686
295851.272,702312.552,8.775
295852.930,702305.745,8.635
295854.326,702300.268,8.634
295855.694,702294.506,8.614
295858.850,702284.026,8.633
295860.862,702277.344,8.593
295863.486,702269.168,8.512
295865.311,702262.696,8.612
295867.075,702257.211,8.452
295869.994,702248.000,8.481
295871.742,702242.000,8.511
295873.279,702236.404,8.460
295874.674,702231.065,8.380
295876.213,702224.887,8.439
295877.448,702218.507,8.449
295879.056,702211.678,8.488
295881.905,702201.701,8.386
295884.916,702191.164,8.355
295886.678,702184.787,8.364
295888.450,702178.414,8.414
295890.546,702170.864,8.423
295892.214,702165.289,8.402
295895.628,702155.149,8.451
295897.491,702149.041,8.460
295898.857,702143.601,8.509
295900.787,702135.326,8.468
295902.273,702129.879,8.447
295903.747,702124.280,8.487
295905.073,702118.936,8.506
295906.553,702113.020,8.555
295908.526,702106.095,8.575
295910.138,702100.068,8.624
295911.784,702094.391,8.673
295915.325,702083.461,8.622
295917.261,702077.070,8.661
295918.739,702071.373,8.590
295920.335,702064.151,8.600
295921.641,702058.777,8.519
295924.110,702049.143,8.459
295925.512,702043.539,8.548
295926.983,702037.966,8.508
295928.680,702031.674,8.438
295930.597,702024.593,8.457
295932.657,702016.474,8.437
295934.144,702010.359,8.406
295936.040,702004.718,8.396
295938.450,701997.604,8.406
295940.319,701991.493,8.395
295942.265,701985.340,8.415
295945.171,701974.507,8.414
295946.896,701968.953,8.384
295949.252,701961.136,8.393
295950.636,701955.811,8.383
295952.133,701950.441,8.373
295953.644,701944.236,8.352
295955.361,701934.720,8.372
295956.435,701929.080,8.431
295958.465,701920.964,8.351
295960.322,701915.035,8.410
295963.094,701904.472,8.400
295964.796,701897.645,8.459
295966.974,701889.423,8.549
295969.056,701882.476,8.578
295971.508,701873.531,8.638
295973.883,701863.917,8.607
295975.713,701858.574,8.427
295977.962,701851.520,8.287
295980.023,701844.485,8.426
295981.975,701837.903,8.136
295984.051,701829.645,8.425
295986.320,701822.033,8.405
295988.897,701813.703,8.484
295990.345,701807.977,8.514
295991.859,701802.348,8.454
295994.254,701792.863,8.453
295995.874,701787.526,8.473
295998.654,701777.151,8.482
295999.775,701771.546,8.462
296001.206,701764.188,8.421
296002.647,701757.716,8.351
296004.685,701750.080,8.340
296008.187,701740.398,8.350
296010.376,701734.970,8.300
296012.619,701729.098,8.389
296015.380,701721.356,8.419
296017.129,701715.562,8.408
296018.406,701710.175,8.318
296019.773,701704.646,8.408
296021.376,701694.455,8.427
296022.154,701686.817,8.437
296022.803,701680.232,8.456
296023.790,701673.178,8.406
296026.079,701663.673,8.425
296028.376,701657.097,8.355
296031.111,701650.447,8.364
296033.316,701645.060,8.384
296036.106,701637.776,8.434
296038.689,701629.753,8.453
296042.213,701620.807,8.483
296044.968,701612.396,8.482
296046.677,701605.502,8.432
296048.074,701598.711,8.411
296049.305,701592.813,8.401
296050.557,701587.120,8.440
296052.097,701580.797,8.420
296053.812,701574.798,8.440
296055.823,701567.745,8.349
296057.214,701562.229,8.439
296058.586,701556.568,8.539
296059.944,701551.039,8.518
296062.117,701542.834,8.518
296065.366,701533.240,8.587
296068.433,701525.669,8.647
296070.967,701520.207,8.646
296073.450,701513.624,8.626
296074.905,701508.133,8.646
296076.175,701502.131,8.745
296077.663,701495.103,8.825
296078.944,701488.450,8.884
296080.596,701482.183,8.964
296082.360,701475.252,9.034
296084.681,701465.518,9.113
296085.601,701459.784,9.213
296086.356,701454.081,9.402
296087.616,701448.492,9.492
296089.929,701439.534,9.562
296091.609,701434.029,9.631
296093.485,701428.688,9.671
296095.152,701423.333,9.771
296098.419,701412.361,9.850
296100.344,701405.200,9.887
296102.668,701398.486,9.915
296105.701,701390.024,9.942
296107.661,701383.619,9.970
296109.521,701376.653,10.000
296110.734,701369.722,9.980
296111.881,701362.129,9.999
296112.885,701356.199,10.019
296114.426,701349.881,10.039
296117.055,701341.341,10.069
296102.308,701352.061,9.497
296100.510,701359.618,9.487
296098.441,701367.925,9.486
296097.662,701375.259,9.496
296096.678,701381.151,9.506
296095.426,701386.633,9.546
296094.065,701392.191,9.506
296092.497,701398.159,9.565
296091.170,701404.450,9.575
296088.813,701412.431,9.605
296086.562,701419.428,9.585
296083.714,701429.181,9.584
296081.885,701434.716,9.534
296079.851,701439.913,9.474
296077.818,701445.155,9.444
296075.792,701451.386,9.374
296073.890,701457.257,9.283
296071.820,701463.177,9.173
296069.874,701469.323,9.103
296068.335,701475.063,9.033
296066.981,701480.867,8.953
296065.985,701486.542,8.832
296064.570,701496.144,8.752
296063.304,701502.178,8.612
296061.589,701507.445,8.602
296059.945,701514.191,8.561
296057.705,701522.162,8.541
296056.078,701527.777,8.501
296054.313,701533.459,8.531
296052.514,701539.340,8.491
296050.754,701545.726,8.420
296049.237,701552.160,8.340
296048.013,701557.690,8.390
296046.490,701563.585,8.450
296044.958,701570.371,8.430
296043.729,701576.396,8.390
296042.178,701583.616,8.430
296039.719,701594.281,8.460
296035.687,701604.082,8.500
296034.237,701609.679,8.480
296030.831,701618.548,8.390
296029.145,701624.131,8.340
296027.098,701630.503,8.310
296025.656,701635.919,8.120
296024.687,701641.607,8.270
296023.234,701649.393,8.320
296021.753,701655.725,8.360
296020.698,701661.622,8.410
296018.873,701670.625,8.430
296017.147,701677.650,8.450
296015.842,701683.457,8.500
296014.265,701688.944,8.520
296012.542,701695.317,8.550
296009.870,701703.634,8.520
296007.328,701710.191,8.460
296003.728,701719.350,8.430
296000.523,701730.002,8.440
295998.152,701739.662,8.429
295996.606,701747.582,8.389
295995.143,701752.956,8.429
295993.717,701758.845,8.408
295991.058,701768.422,8.448
295989.230,701774.214,8.467
295987.105,701782.871,8.447
295985.274,701789.649,8.466
295983.065,701797.608,8.506
295981.311,701802.866,8.526
295979.652,701809.159,8.495
295977.517,701814.565,8.535
295976.182,701819.911,8.485
295974.263,701827.601,8.464
295972.524,701833.568,8.434
295970.585,701843.123,8.373
295969.020,701849.114,8.533
295966.545,701855.875,8.613
295963.966,701861.500,8.572
295961.221,701870.734,8.562
295958.949,701880.141,8.531
295957.874,701885.746,8.521
295956.569,701891.150,8.481
295954.431,701898.586,8.470
295952.940,701903.889,8.480
295950.998,701910.573,8.439
295949.108,701916.647,8.359
295946.230,701926.317,8.409
295944.720,701932.039,8.438
295943.002,701938.136,8.358
295941.498,701943.539,8.368
295939.942,701949.837,8.397
295937.752,701958.090,8.427
295935.894,701965.099,8.436
295934.337,701971.155,8.426
295932.846,701977.704,8.416
295931.489,701983.137,8.405
295929.870,701991.341,8.405
295928.274,701998.604,8.414
295926.583,702004.171,8.404
295925.064,702009.996,8.374
295921.980,702020.291,8.403
295919.681,702028.450,8.523
295917.933,702034.109,8.442
295915.862,702041.796,8.432
295913.744,702049.515,8.431
295911.793,702056.003,8.471
295909.947,702062.200,8.431
295908.070,702069.239,8.410
295906.612,702074.922,8.420
295904.735,702081.687,8.420
295903.100,702087.053,8.429
295901.158,702094.129,8.409
295899.505,702100.065,8.399
295897.605,702105.837,8.338
295895.586,702113.222,8.368
295893.846,702119.968,8.337
295892.165,702125.916,8.307
295890.496,702132.116,8.337
295888.571,702138.857,8.386
295886.320,702147.601,8.556
295884.853,702153.035,8.506
295882.064,702163.071,8.485
295879.935,702171.429,8.465
295878.248,702177.701,8.434
295875.592,702188.197,8.434
295874.249,702194.171,8.373
295872.066,702201.361,8.463
295870.136,702208.661,8.512
295867.827,702217.861,8.512
295866.004,702224.013,8.491
295864.525,702230.194,8.481
295862.627,702238.014,8.441
295860.572,702246.231,8.400
295857.628,702255.338,8.590
295856.167,702260.947,8.499
295854.956,702266.568,8.409
295852.434,702277.561,8.438
295849.571,702286.168,8.428
295847.722,702291.622,8.458
295845.081,702296.506,8.417
295842.056,702302.840,8.467
295840.454,702308.240,8.407
295836.988,702319.193,8.386
295834.984,702328.257,8.356
295833.660,702334.260,8.405
295832.557,702341.321,8.385
295831.756,702348.008,8.354
295829.846,702357.889,8.344
295828.124,702364.878,8.433
295826.610,702370.309,8.343
295824.142,702379.942,8.453
295821.697,702389.002,8.442
295820.112,702395.181,8.392
295818.238,702401.506,8.441
295816.961,702406.912,8.521
295815.424,702412.393,8.481
295812.354,702422.153,8.410
295809.924,702431.908,8.450
295808.665,702437.395,8.410
295806.820,702444.438,8.410
295805.110,702451.372,8.410
295802.803,702462.235,8.420
295801.491,702468.861,8.470
295799.763,702475.543,8.490
295797.794,702481.311,8.340
295794.484,702489.490,8.350
295792.781,702495.586,8.330
295791.137,702501.068,8.440
295789.077,702507.188,8.550
295786.531,702513.965,8.490
295784.471,702520.309,8.610
295783.165,702525.764,8.450
295781.490,702532.053,8.540
295778.897,702541.749,8.510
295777.524,702547.673,8.460
295775.721,702554.283,8.370
295774.140,702560.185,8.410
295772.699,702565.596,8.510
295770.829,702571.488,8.350
295769.382,702577.239,8.380
295767.418,702583.903,8.430
295765.301,702590.593,8.390
295763.480,702597.221,8.460
295761.369,702605.259,8.450
295759.635,702613.286,8.489
295758.057,702622.497,8.439
295756.809,702628.804,8.358
295755.238,702634.814,8.348
295753.356,702640.378,8.318
295749.777,702648.804,8.297
295747.189,702655.759,8.337
295745.279,702661.957,8.317
295744.031,702667.861,8.296
295741.889,702674.727,8.296
295739.870,702681.124,8.245
295738.111,702686.859,8.345
295735.466,702694.498,8.285
295733.651,702700.463,8.284
295731.829,702706.109,8.284
295728.393,702716.017,8.353
295726.421,702722.044,8.363
295724.272,702728.308,8.393
295722.690,702734.492,8.402
295721.602,702742.901,8.422
295720.375,702749.794,8.441
295718.751,702757.446,8.421
295716.056,702766.748,8.411
295714.475,702772.448,8.400
295713.013,702780.050,8.449
295711.274,702789.420,8.417
295709.407,702795.089,8.496
295708.110,702800.864,8.394
295704.951,702811.406,8.452
295702.267,702822.020,8.499
295700.544,702827.270,8.498
295698.801,702832.949,8.477
295696.126,702841.746,8.505
295694.854,702848.709,8.543
295693.623,702854.225,8.542
295690.502,702864.777,8.560
295687.733,702875.585,8.640
295686.099,702881.456,8.710
295683.875,702888.755,8.760
295681.651,702896.247,8.800
295679.896,702902.438,8.760
295678.353,702908.345,8.730
295676.381,702915.073,8.770
295674.790,702920.835,8.790
295673.007,702926.334,8.750
295670.885,702933.074,8.750
295669.249,702939.001,8.750
295666.640,702946.628,8.760
295663.383,702954.857,8.780
295661.514,702961.396,8.770
295660.542,702968.429,8.760
295658.347,702975.725,8.760
295656.610,702981.190,8.770
295654.890,702988.663,8.790
295653.598,702994.972,8.770
295651.567,703001.315,8.790
295641.923,703000.095,8.913
295644.243,702991.567,8.933
295645.863,702986.193,8.932
295647.896,702980.440,8.912
295649.880,702973.040,8.902
295652.001,702963.923,8.891
295653.710,702958.149,8.871
295655.906,702951.246,8.871
295658.747,702942.103,8.860
295661.309,702934.360,8.870
295663.309,702928.829,8.899
295664.820,702923.183,8.829
295666.119,702916.963,8.819
295667.550,702909.004,8.768
295669.058,702902.880,8.758
295670.232,702897.096,8.768
295672.018,702889.694,8.718
295674.085,702882.467,8.657
295675.515,702876.589,8.587
295676.555,702870.850,8.587
295678.121,702865.256,8.526
295679.823,702859.830,8.516
295681.900,702852.088,8.496
295683.711,702846.175,8.475
295685.418,702840.281,8.505
295687.012,702834.956,8.495
295688.767,702829.541,8.404
295690.735,702823.866,8.484
295693.483,702816.707,8.484
295695.992,702808.252,8.523
295697.707,702801.406,8.523
295698.680,702795.870,8.433
295700.038,702788.658,8.532
295701.476,702783.255,8.472
295703.588,702775.262,8.472
295705.249,702769.212,8.411
295706.849,702763.412,8.421
295708.592,702757.628,8.411
295710.536,702752.287,8.410
295712.922,702746.497,8.370
295714.981,702740.115,8.350
295716.320,702733.815,8.319
295717.523,702728.015,8.359
295718.725,702722.169,8.299
295720.098,702715.611,8.368
295721.335,702709.808,8.308
295723.669,702699.396,8.347
295726.226,702689.160,8.326
295728.037,702682.234,8.286
295729.810,702676.173,8.386
295731.768,702670.835,8.435
295734.116,702665.429,8.385
295736.966,702658.176,8.294
295740.205,702648.190,8.364
295741.330,702641.879,8.353
295742.510,702635.984,8.353
295743.708,702629.255,8.382
295745.598,702620.369,8.482
295747.752,702612.985,8.562
295748.945,702606.815,8.501
295750.780,702599.704,8.561
295752.429,702593.489,8.460
295753.734,702587.956,8.310
295755.077,702582.336,8.460
295756.773,702575.251,8.319
295758.754,702569.722,8.279
295761.393,702559.473,8.498
295762.907,702553.832,8.308
295764.905,702548.161,8.287
295766.495,702542.491,8.347
295768.280,702537.220,8.237
295771.016,702529.900,8.276
295773.576,702522.191,8.386
295776.796,702512.598,8.375
295778.805,702503.570,8.424
295780.148,702497.409,8.484
295781.764,702489.439,8.544
295783.037,702483.814,8.473
295785.783,702474.257,8.473
295787.741,702468.415,8.222
295790.792,702459.038,8.432
295792.651,702452.706,8.331
295795.044,702444.858,8.381
295798.157,702435.999,8.370
295800.245,702430.134,8.380
295801.505,702424.331,8.339
295802.552,702418.117,8.329
295803.569,702412.508,8.399
295805.483,702405.087,8.388
295807.192,702399.659,8.378
295810.096,702389.210,8.347
295812.103,702381.977,8.377
295813.939,702375.339,8.416
295815.563,702369.642,8.386
295818.270,702360.598,8.345
295820.539,702353.223,8.405
295822.520,702346.430,8.454
295823.930,702340.795,8.404
295825.541,702333.214,8.404
295826.513,702327.666,8.393
295828.720,702320.180,8.403
295830.365,702314.020,8.372
295832.550,702305.044,8.382
295834.185,702298.933,8.321
295835.844,702293.670,8.231
295838.297,702287.394,8.431
295841.928,702278.708,8.440
295844.231,702271.565,8.499
295845.399,702265.936,8.489
295846.287,702259.753,8.498
295847.585,702253.801,8.547
295848.747,702248.270,8.416
295849.793,702242.520,8.346
295850.824,702236.933,8.305
295853.072,702229.131,8.314
295854.945,702223.473,8.353
295857.162,702216.259,8.402
295859.993,702207.794,8.391
295861.587,702202.136,8.350
295863.458,702192.764,8.449
295865.983,702183.837,8.468
295869.281,702173.734,8.487
295871.197,702168.192,8.426
295872.777,702162.277,8.395
295874.084,702156.409,8.355
295875.131,702148.379,8.314
295876.313,702142.634,8.213
295878.396,702135.479,8.252
295880.426,702129.408,8.311
295882.831,702121.376,8.360
295883.727,702115.609,8.310
295884.894,702109.906,8.289
295886.611,702102.910,8.299
295889.387,702092.957,8.328
295893.201,702082.760,8.358
295896.938,702073.888,8.417
295899.895,702066.522,8.457
295903.772,702056.582,8.536
295905.205,702050.804,8.536
295906.068,702044.489,8.495
295906.981,702038.588,8.585
295907.625,702033.051,8.464
295908.841,702024.686,8.494
295910.125,702017.909,8.393
295912.026,702009.776,8.383
295914.347,702003.090,8.453
295916.442,701996.732,8.352
295918.786,701989.255,8.542
295920.243,701982.969,8.521
295921.612,701977.475,8.561
295923.538,701972.130,8.511
295925.822,701966.741,8.490
295927.637,701960.361,8.450
295929.327,701954.002,8.479
295930.670,701947.927,8.409
295931.517,701942.182,8.399
295933.184,701935.590,8.378
295935.438,701924.793,8.378
295937.353,701918.241,8.417
295939.308,701912.604,8.397
295941.089,701907.176,8.306
295942.803,701901.322,8.416
295944.808,701893.259,8.466
295946.315,701885.268,8.535
295949.365,701874.700,8.564
295950.813,701869.346,8.554
295952.718,701863.423,8.544
295954.212,701858.113,8.593
295957.390,701848.067,8.493
295960.714,701839.082,8.212
295962.747,701833.375,8.292
295964.787,701825.956,8.471
295966.093,701820.425,8.461
295967.747,701814.040,8.221
295969.334,701807.683,8.520
295971.036,701802.386,8.450
295973.048,701795.311,8.459
295974.961,701789.252,8.399
295977.957,701780.013,8.428
295979.484,701774.139,8.378
295982.400,701763.544,8.397
295984.828,701752.798,8.387
295986.594,701745.502,8.366
295988.594,701739.441,8.396
295990.420,701734.142,8.375
295993.016,701725.209,8.395
295995.374,701718.109,8.455
295996.823,701712.692,8.494
295998.533,701705.180,8.394
296000.003,701698.676,8.433
296001.617,701690.260,8.483
296003.676,701681.676,8.532
296006.106,701673.392,8.532
296008.066,701667.950,8.471
296010.708,701660.167,8.461
296012.470,701654.741,8.451
296015.268,701643.727,8.420
296016.648,701638.358,8.439
296019.126,701628.062,8.468
296021.048,701617.892,8.537
296022.278,701611.884,8.596
296023.727,701605.876,8.585
296026.072,701595.816,8.614
296027.767,701589.463,8.613
296029.263,701584.066,8.592
296031.632,701575.162,8.631
296033.993,701567.596,8.650
296036.429,701560.742,8.599
296039.044,701552.264,8.538
296041.107,701543.410,8.557
296042.501,701537.583,8.596
296044.588,701528.980,8.675
296046.698,701522.233,8.705
296048.571,701514.619,8.714
296049.907,701509.163,8.693
296052.454,701500.055,8.712
296054.177,701494.320,8.751
296056.189,701487.904,8.830
296058.286,701482.444,8.900
296060.838,701475.873,8.989
296063.937,701467.879,9.109
296066.987,701460.162,9.218
296069.025,701450.214,9.258
296069.793,701444.309,9.247
296070.499,701438.486,9.207
296071.439,701431.729,9.177
296072.511,701425.442,9.156
296073.653,701419.756,9.136
296075.574,701412.333,9.106
296077.181,701407.036,9.085
296078.901,701401.292,9.055
296080.540,701395.404,9.004
296081.989,701389.524,9.034
296083.312,701383.419,9.034
296085.041,701377.752,9.093
296087.798,701368.488,9.163
296089.516,701363.085,9.162
296091.963,701356.132,9.202
296094.212,701349.859,9.192
296096.596,701343.355,9.171
296085.477,701341.541,8.369
296083.227,701348.936,8.949
296081.375,701354.659,9.038
296079.979,701360.006,9.038
296078.685,701366.070,8.957
296077.321,701372.123,8.817
296075.589,701378.749,8.787
296073.745,701387.605,8.846
296072.351,701394.101,8.916
296071.152,701399.677,8.905
296069.653,701407.390,8.955
296067.802,701414.176,8.955
296065.792,701420.656,8.934
296064.089,701426.921,8.954
296062.276,701433.390,8.923
296060.763,701439.364,8.963
296059.237,701444.800,8.933
296057.098,701452.709,8.872
296055.355,701458.460,8.832
296053.727,701463.831,8.772
296051.893,701470.445,8.721
296050.457,701476.979,8.701
296049.003,701482.377,8.610
296047.329,701487.702,8.620
296044.737,701498.067,8.679
296043.071,701503.646,8.669
296041.397,701508.952,8.659
296039.380,701516.495,8.628
296037.992,701523.130,8.578
296035.134,701531.211,8.557
296033.447,701536.660,8.497
296031.623,701542.054,8.467
296030.043,701547.439,8.426
296028.632,701552.866,8.486
296026.992,701558.167,8.446
296023.414,701568.717,8.535
296021.970,701574.224,8.505
296019.936,701580.960,8.494
296018.378,701586.864,8.454
296016.654,701593.000,8.423
296013.516,701601.478,8.403
296011.821,701608.171,8.433
296010.577,701613.633,8.422
296009.043,701620.764,8.422
296007.105,701628.548,8.401
296004.976,701636.012,8.431
296002.886,701641.749,8.410
295999.820,701651.451,8.350
295998.640,701657.109,8.410
295997.505,701663.609,8.449
295996.297,701669.305,8.429
295994.501,701677.283,8.448
295993.473,701683.092,8.378
295992.179,701689.665,8.418
295989.982,701698.507,8.377
295988.260,701703.873,8.427
295986.564,701710.216,8.396
295983.241,701720.423,8.316
295981.108,701729.237,8.395
295978.578,701737.665,8.435
295976.759,701743.689,8.384
295974.205,701752.696,8.374
295972.037,701760.271,8.363
295969.876,701768.097,8.353
295968.081,701775.748,8.332
295965.905,701782.736,8.442
295962.975,701792.740,8.471
295961.332,701798.502,8.441
295959.712,701803.778,8.371
295957.069,701812.768,8.350
295955.289,701818.267,8.450
295953.418,701825.151,8.239
295950.831,701835.338,8.239
295948.923,701840.780,8.458
295946.881,701849.264,8.548
295945.471,701855.831,8.597
295943.717,701861.485,8.587
295941.183,701869.054,8.537
295939.019,701874.523,8.556
295937.548,701880.507,8.526
295936.123,701886.463,8.396
295933.165,701894.903,8.435
295931.238,701900.388,8.395
295929.115,701907.942,8.384
295926.996,701916.449,8.354
295924.319,701925.573,8.383
295922.006,701935.335,8.423
295920.237,701941.316,8.362
295917.314,701948.761,8.372
295916.237,701954.407,8.341
295915.441,701962.871,8.311
295914.185,701968.954,8.321
295912.680,701975.794,8.350
295909.885,701985.931,8.359
295908.265,701991.791,8.379
295906.007,702002.488,8.409
295903.961,702013.536,8.428
295902.531,702019.424,8.447
295899.858,702029.462,8.447
295898.277,702035.077,8.427
295896.223,702041.410,8.346
295892.927,702052.012,8.446
295889.470,702062.120,8.425
295887.841,702068.311,8.355
295885.778,702074.479,8.324
295883.669,702079.794,8.284
295881.246,702084.892,8.294
295879.766,702090.976,8.333
295878.513,702097.070,8.303
295876.087,702103.942,8.272
295874.350,702110.611,8.262
295873.253,702116.756,8.262
295871.139,702126.664,8.291
295869.227,702132.774,8.271
295867.580,702138.679,8.270
295865.676,702148.997,8.300
295863.444,702157.055,8.309
295860.381,702167.282,8.329
295858.431,702173.156,8.258
295856.060,702181.375,8.408
295853.444,702188.255,8.417
295851.270,702194.197,8.427
295849.730,702200.231,8.277
295847.693,702209.668,8.376
295846.225,702215.008,8.316
295844.873,702221.134,8.345
295843.440,702226.889,8.255
295842.011,702232.810,8.325
295840.616,702240.501,8.274
295838.604,702247.507,8.304
295836.663,702253.036,8.323
295834.816,702259.288,8.323
295831.617,702268.476,8.373
295828.906,702276.124,8.402
295826.913,702281.252,8.352
295824.779,702288.226,8.331
295823.763,702293.914,8.341
295822.555,702299.997,8.351
295820.377,702308.924,8.290
295818.777,702315.071,8.130
295816.191,702325.007,8.260
295813.850,702331.879,8.250
295811.652,702340.755,8.270
295809.383,702350.691,8.140
295808.061,702357.914,8.280
295806.818,702363.780,8.340
295804.985,702370.298,8.250
295802.997,702375.916,8.240
295801.010,702381.519,8.240
295800.048,702387.541,8.210
295798.615,702394.582,8.310
295797.086,702400.355,8.480
295795.837,702406.254,8.390
295793.989,702415.600,8.350
295791.529,702423.313,8.380
295788.725,702432.103,8.420
295787.000,702437.437,8.340
295785.033,702447.495,8.450
295782.315,702457.972,8.520
295779.815,702466.998,8.440
295778.049,702473.435,8.370
295775.226,702482.672,8.320
295773.179,702488.397,8.409
295770.495,702495.360,8.399
295768.669,702500.770,8.379
295766.119,702510.368,8.418
295764.390,702516.086,8.348
295762.974,702521.956,8.397
295760.754,702528.397,8.377
295757.633,702538.526,8.336
295754.733,702549.034,8.456
295753.396,702555.027,8.395
295751.349,702562.190,8.405
295749.573,702567.738,8.375
295747.468,702577.118,8.564
295745.660,702584.636,8.354
295743.859,702591.407,8.373
295742.091,702597.362,8.333
295739.693,702607.052,8.542
295737.855,702613.565,8.332
295735.426,702622.266,8.301
295734.081,702628.118,8.261
295732.739,702633.481,8.231
295730.420,702642.883,8.160
295728.095,702651.882,8.310
295726.059,702658.889,8.239
295724.494,702666.327,8.309
295722.800,702673.856,8.319
295721.237,702679.338,8.288
295719.720,702686.866,8.318
295716.649,702696.718,8.297
295714.959,702702.496,8.297
295711.672,702710.883,8.376
295708.835,702719.914,8.346
295706.412,702728.272,8.345
295703.715,702738.434,8.375
295701.352,702746.935,8.384
295699.729,702753.959,8.414
295698.413,702759.662,8.444
295696.472,702765.961,8.433
295695.182,702771.929,8.433
295693.496,702777.207,8.292
295691.516,702782.900,8.372
295689.962,702788.571,8.412
295688.096,702796.250,8.471
295685.738,702804.847,8.451
295683.956,702811.986,8.460
295681.801,702820.999,8.500
295680.732,702826.796,8.469
295679.395,702832.344,8.488
295677.195,702837.646,8.517
295673.937,702845.488,8.526
295671.970,702850.766,8.525
295670.155,702857.991,8.524
295668.634,702865.089,8.513
295665.231,702874.879,8.602
295662.533,702882.213,8.721
295660.765,702888.295,8.700
295657.801,702897.812,8.739
295656.486,702903.281,8.729
295654.462,702914.765,8.758
295651.890,702925.406,8.787
295650.048,702932.152,8.827
295648.062,702940.862,8.826
295646.584,702948.916,8.815
295644.813,702957.607,8.805
295642.440,702963.206,8.784
295638.939,702972.483,8.804
295636.372,702980.010,8.813
295634.835,702985.974,8.823
295633.610,702992.749,8.822
295623.319,702986.342,8.887
295624.742,702981.019,8.837
295627.687,702972.457,8.816
295629.684,702966.818,8.816
295632.160,702960.227,8.795
295634.481,702953.776,8.805
295637.054,702945.431,8.814
295638.294,702939.235,8.794
295640.077,702931.434,8.823
295642.040,702924.814,8.783
295643.790,702919.089,8.772
295646.632,702909.911,8.741
295649.145,702902.752,8.781
295650.819,702896.467,8.740
295652.447,702889.962,8.700
295653.935,702881.157,8.619
295655.112,702875.432,8.579
295656.626,702869.591,8.509
295658.790,702861.922,8.528
295661.351,702850.909,8.528
295662.414,702845.049,8.467
295664.094,702838.246,8.447
295666.212,702832.552,8.467
295667.941,702826.741,8.436
295671.038,702818.175,8.486
295672.938,702812.583,8.476
295675.545,702803.774,8.495
295678.118,702795.577,8.515
295680.677,702785.318,8.354
295682.249,702779.326,8.504
295684.956,702770.551,8.503
295686.791,702763.558,8.483
295688.030,702757.434,8.473
295688.843,702751.914,8.482
295690.418,702742.723,8.462
295691.782,702736.894,8.391
295695.079,702726.964,8.371
295697.166,702721.750,8.221
295700.206,702715.018,8.370
295702.399,702709.571,8.400
295704.386,702703.915,8.369
295706.087,702697.118,8.179
295707.310,702690.165,8.309
295708.725,702684.380,8.248
295710.353,702678.015,8.328
295711.588,702672.442,8.307
295712.985,702666.035,8.327
295715.172,702657.893,8.326
295716.706,702652.478,8.326
295719.409,702643.635,8.365
295722.450,702634.190,8.265
295724.669,702627.431,8.244
295727.132,702619.393,8.194
295728.348,702613.909,8.003
295730.771,702603.622,8.133
295732.381,702597.445,8.142
295733.950,702590.681,8.252
295735.052,702585.099,8.292
295736.732,702578.325,8.281
295738.403,702572.181,8.181
295739.910,702566.878,8.140
295741.970,702561.305,8.120
295743.790,702554.996,8.070
295747.011,702544.420,8.159
295748.838,702538.419,8.278
295751.584,702529.806,8.378
295753.614,702523.418,8.507
295755.152,702518.120,8.397
295756.921,702511.627,8.337
295757.948,702505.995,8.496
295760.332,702495.965,8.586
295762.449,702487.383,8.535
295765.339,702476.855,8.524
295767.197,702471.419,8.414
295769.058,702465.645,8.234
295771.034,702458.961,8.363
295773.179,702449.563,8.123
295775.204,702438.485,8.282
295776.874,702431.841,8.321
295779.087,702423.307,8.331
295780.918,702417.520,8.250
295782.936,702411.603,8.240
295784.563,702405.936,8.290
295785.967,702397.856,8.299
295787.820,702388.322,8.299
295790.183,702379.088,8.258
295793.525,702368.994,8.277
295795.550,702363.322,8.247
295797.215,702357.298,8.266
295800.345,702346.483,8.296
295802.956,702338.644,8.295
295805.124,702333.130,8.285
295806.757,702327.526,8.264
295808.585,702321.277,8.304
295810.585,702313.999,8.324
295812.113,702308.126,8.313
295813.878,702299.934,8.323
295815.577,702290.981,8.312
295817.083,702284.746,8.342
295819.210,702278.218,8.331
295821.244,702272.675,8.331
295823.627,702265.101,8.350
295825.173,702259.742,8.370
295826.858,702253.672,8.390
295828.460,702246.091,8.379
295829.871,702239.600,8.369
295830.590,702233.918,8.328
295831.473,702228.052,8.358
295832.855,702222.637,8.318
295835.129,702215.397,8.307
295837.336,702208.371,8.297
295838.612,702202.668,8.256
295839.731,702196.321,8.256
295840.596,702190.573,8.215
295841.982,702183.988,8.205
295844.005,702178.550,8.195
295849.159,702169.116,8.224
295851.666,702163.467,8.194
295853.907,702155.520,8.203
295855.055,702146.595,8.242
295856.178,702138.410,8.272
295857.339,702132.415,8.342
295860.176,702123.344,8.311
295864.440,702113.192,8.320
295866.442,702108.050,8.330
295868.275,702102.094,8.370
295869.605,702096.231,8.419
295871.440,702089.191,8.439
295874.005,702077.976,8.408
295875.570,702071.061,8.398
295877.087,702065.404,8.387
295879.005,702059.926,8.407
295881.157,702050.593,8.396
295883.010,702044.680,8.426
295886.234,702033.985,8.285
295888.126,702027.508,8.305
295890.188,702019.639,8.434
295892.472,702011.002,8.474
295893.798,702005.269,8.463
295895.517,701997.864,8.473
295897.991,701988.204,8.532
295900.295,701980.202,8.522
295901.940,701973.574,8.461
295903.446,701968.161,8.461
295905.676,701962.184,8.450
295908.436,701956.096,8.410
295911.341,701949.380,8.390
295913.280,701944.072,8.359
295916.020,701934.647,8.379
295916.809,701928.776,8.338
295918.499,701921.395,8.308
295919.667,701915.516,8.297
295920.659,701908.796,8.227
295921.782,701902.495,8.227
295923.114,701896.643,8.286
295925.469,701889.514,8.336
295928.257,701880.483,8.335
295931.394,701870.248,8.474
295934.222,701860.965,8.454
295935.405,701855.289,8.493
295936.861,701848.763,8.543
295938.883,701841.275,8.623
295941.750,701832.311,8.442
295943.723,701826.248,8.262
295946.723,701816.324,8.191
295948.647,701810.021,8.431
295950.462,701803.610,8.510
295951.918,701796.189,8.540
295953.654,701789.636,8.499
295957.027,701778.845,8.498
295958.516,701772.739,8.318
295959.310,701767.166,8.388
295960.746,701759.733,8.287
295962.051,701754.028,8.127
295964.419,701746.617,8.386
295967.582,701737.498,8.416
295969.250,701731.773,8.395
295970.929,701726.259,8.375
295972.539,701720.327,8.235
295974.733,701712.475,8.374
295976.048,701706.934,8.424
295978.894,701697.652,8.403
295980.879,701691.693,8.493
295984.661,701682.109,8.452
295986.304,701675.845,8.472
295987.950,701670.314,8.411
295989.495,701664.182,8.091
295992.376,701653.736,8.240
295993.504,701647.689,8.150
295994.982,701640.143,8.319
295996.496,701634.413,8.379
295998.590,701628.821,8.359
296000.627,701621.501,8.338
296001.770,701615.795,8.308
296003.466,701608.780,8.367
296005.847,701600.181,8.427
296007.275,701594.735,8.416
296008.627,701587.785,8.446
296010.014,701581.057,8.506
296012.693,701570.426,8.515
296016.271,701560.027,8.524
296019.239,701550.939,8.484
296021.461,701544.550,8.403
296023.430,701536.053,8.363
296025.666,701525.924,8.412
296027.655,701516.059,8.471
296029.099,701510.338,8.561
296032.269,701500.956,8.600
296034.827,701492.829,8.630
296036.252,701486.855,8.619
296037.486,701481.019,8.559
296040.462,701471.462,8.558
296041.944,701466.020,8.598
296044.131,701458.877,8.588
296046.880,701451.287,8.577
296048.793,701445.676,8.537
296050.997,701438.884,8.536
296052.326,701432.719,8.536
296053.635,701426.733,8.526
296054.877,701418.956,8.515
296056.134,701410.268,8.475
296058.257,701403.252,8.494
296060.841,701394.328,8.493
296061.928,701388.777,8.503
296063.474,701380.003,8.483
296064.908,701374.144,8.422
296066.596,701368.550,8.522
296068.138,701362.922,8.691
296070.647,701352.392,8.681
296072.162,701346.964,8.600
296074.036,701339.848,8.580
296076.013,701333.217,8.530
296062.724,701330.656,8.058
296061.478,701336.711,8.117
296060.807,701342.973,8.157
296060.284,701348.734,8.217
296059.319,701356.860,8.246
296058.162,701362.290,8.226
296056.091,701370.662,8.326
296055.199,701376.104,8.395
296054.049,701382.717,8.475
296051.483,701393.174,8.494
296050.076,701398.845,8.514
296048.138,701404.953,8.434
296046.096,701411.294,8.403
296043.169,701420.616,8.433
296041.625,701426.269,8.542
296039.780,701431.936,8.492
296037.783,701438.033,8.492
296035.859,701445.225,8.491
296034.032,701452.411,8.531
296031.407,701458.365,8.550
296028.698,701465.969,8.550
296027.468,701472.721,8.499
296025.871,701478.539,8.479
296024.691,701484.100,8.449
296023.348,701490.637,8.428
296022.151,701496.464,8.428
296020.444,701504.072,8.428
296019.455,701509.766,8.397
296017.669,701518.150,8.307
296015.213,701527.308,8.456
296013.945,701534.807,8.466
296012.598,701540.709,8.505
296011.307,701546.107,8.405
296009.121,701552.837,8.365
296006.924,701558.288,8.244
296004.532,701563.556,8.444
296001.306,701572.083,8.484
295998.971,701581.669,8.383
295997.545,701586.997,8.453
295995.017,701595.836,8.482
295993.774,701601.334,8.442
295992.571,701607.577,8.442
295991.193,701613.610,8.421
295989.281,701620.439,8.481
295988.113,701626.155,8.450
295985.512,701636.071,8.430
295984.042,701641.438,8.370
295982.384,701648.440,8.409
295980.377,701658.210,8.159
295978.002,701667.857,8.358
295975.851,701676.508,8.418
295974.494,701682.616,8.297
295971.310,701692.951,8.387
295969.367,701698.966,8.406
295967.718,701704.452,8.356
295965.910,701709.664,8.246
295963.296,701715.850,8.125
295961.169,701722.406,8.375
295958.200,701731.220,8.385
295956.178,701737.259,8.394
295954.528,701743.406,8.324
295952.766,701749.811,8.274
295950.180,701758.301,8.383
295948.712,701764.834,8.293
295946.079,701774.048,8.412
295943.623,701783.004,8.372
295941.766,701788.661,8.411
295939.661,701796.375,8.421
295937.804,701802.166,8.381
295936.108,701809.767,8.390
295934.682,701815.258,8.130
295933.494,701821.405,8.430
295931.832,701828.526,8.619
295929.841,701836.497,8.619
295928.470,701841.988,8.528
295927.261,701848.063,8.478
295925.030,701856.237,8.508
295923.722,701862.122,8.487
295921.525,701867.855,8.477
295919.569,701873.852,8.416
295917.922,701879.612,8.356
295916.189,701886.507,8.316
295913.767,701896.971,8.325
295911.829,701904.098,8.335
295909.202,701912.779,8.354
295907.478,701918.950,8.434
295906.034,701925.096,8.294
295903.488,701934.297,8.323
295901.742,701939.539,8.293
295899.429,701945.559,8.262
295897.239,701955.405,8.242
295895.735,701961.427,8.362
295894.073,701966.964,8.251
295892.219,701973.583,8.251
295888.514,701984.329,8.270
295887.081,701990.968,8.380
295885.855,701996.376,8.330
295884.509,702003.566,8.359
295883.277,702008.961,8.429
295881.976,702014.622,8.389
295880.039,702022.410,8.418
295878.358,702028.396,8.378
295875.938,702038.032,8.337
295874.409,702043.496,8.357
295872.630,702049.460,8.407
295870.799,702055.306,8.346
295869.092,702061.175,8.286
295866.985,702069.835,8.286
295864.769,702076.578,8.345
295863.287,702082.306,8.345
295861.704,702088.612,8.365
295859.828,702094.690,8.364
295857.903,702100.394,8.324
295856.462,702106.097,8.264
295854.661,702113.128,8.283
295853.142,702118.943,8.273
295850.951,702125.804,8.262
295848.624,702134.495,8.382
295847.242,702140.691,8.322
295845.863,702146.736,8.261
295844.009,702152.172,8.251
295842.193,702157.643,8.321
295840.120,702165.549,8.330
295838.655,702172.555,8.300
295836.878,702180.996,8.289
295835.383,702186.475,8.279
295832.716,702196.494,8.309
295831.236,702202.054,8.308
295829.929,702208.051,8.298
295828.638,702213.722,8.388
295827.115,702219.919,8.277
295825.385,702226.274,8.327
295822.304,702237.121,8.306
295820.429,702242.912,8.366
295818.606,702248.942,8.306
295817.061,702254.474,8.335
295814.716,702262.939,8.335
295813.195,702268.508,8.315
295811.717,702274.297,8.314
295809.268,702283.020,8.364
295807.734,702288.449,8.333
295805.331,702296.927,8.293
295803.197,702303.669,8.283
295801.510,702309.559,8.282
295799.890,702315.037,8.332
295798.100,702320.500,8.262
295795.666,702328.774,8.281
295793.635,702336.204,8.301
295791.227,702343.771,8.330
295788.926,702352.743,8.360
295787.827,702358.268,8.340
295786.441,702363.736,8.339
295784.551,702370.958,8.339
295783.116,702377.404,8.319
295781.282,702386.365,8.348
295779.766,702392.059,8.278
295778.048,702397.353,8.278
295776.165,702403.347,8.297
295774.239,702410.078,8.317
295772.502,702416.097,8.336
295770.112,702424.720,8.316
295768.731,702430.114,8.266
295766.475,702438.869,8.265
295764.175,702446.542,8.285
295762.862,702452.216,8.285
295760.852,702460.312,8.324
295759.014,702466.380,8.264
295757.006,702473.444,8.293
295755.345,702478.932,8.293
295753.155,702484.786,8.283
295751.248,702490.604,8.312
295748.801,702498.307,8.232
295745.833,702507.579,8.411
295743.748,702513.671,8.471
295741.303,702521.924,8.381
295739.057,702529.280,8.270
295736.098,702535.495,8.230
295733.215,702541.379,8.300
295731.798,702546.771,8.269
295730.624,702552.264,8.239
295729.941,702558.755,8.229
295729.291,702564.591,8.328
295727.803,702574.927,8.418
295726.372,702584.501,8.327
295725.022,702592.492,8.497
295723.533,702598.085,8.397
295722.251,702603.881,8.366
295720.851,702610.014,8.466
295718.951,702616.105,8.356
295716.704,702622.563,8.405
295714.510,702628.943,8.345
295712.997,702634.652,8.455
295711.014,702640.328,8.324
295708.406,702648.881,8.364
295706.768,702654.780,8.303
295705.319,702661.080,8.253
295702.972,702668.988,8.273
295700.054,702678.617,8.312
295697.374,702686.638,8.312
295694.958,702695.359,8.271
295693.558,702700.858,8.271
295690.665,702711.682,8.280
295689.002,702717.769,8.360
295687.491,702723.470,8.320
295685.865,702729.088,8.279
295684.401,702734.571,8.299
295683.150,702740.330,8.159
295681.440,702747.073,8.288
295679.564,702753.140,8.178
295677.539,702759.637,8.238
295675.890,702766.497,8.317
295674.215,702773.303,8.307
295672.439,702779.214,8.307
295669.766,702786.833,8.316
295668.076,702792.318,8.326
295665.259,702801.647,8.375
295663.597,702806.957,8.425
295661.819,702812.527,8.395
295660.576,702818.791,8.264
295658.798,702825.267,8.354
295657.118,702831.733,8.374
295655.813,702837.297,8.433
295654.218,702843.931,8.523
295652.489,702849.607,8.623
295650.895,702855.114,8.662
295648.525,702863.043,8.522
295646.888,702868.302,8.572
295644.098,702878.216,8.601
295641.034,702888.259,8.651
295639.451,702895.512,8.700
295638.186,702901.301,8.730
295636.737,702907.367,8.700
295634.761,702913.635,8.719
295633.048,702920.831,8.719
295631.961,702926.357,8.749
295630.772,702932.862,8.718
295628.509,702941.134,8.728
295626.749,702947.757,8.767
295624.979,702954.931,8.807
295623.528,702960.465,8.807
295621.790,702966.220,8.826
295619.858,702971.493,8.786
295617.662,702977.119,8.776
295616.089,702982.714,8.755
295602.955,702983.886,8.833
295604.737,702975.713,8.843
295606.236,702969.815,8.852
295609.154,702962.224,8.832
295611.822,702956.139,8.821
295613.779,702950.567,8.811
295616.400,702943.904,8.790
295618.027,702937.278,8.870
295619.834,702931.926,8.760
295622.328,702925.860,8.749
295624.251,702919.138,8.699
